# This PCD file was generated using the MATLAB® pcwrite function
# from Computer Vision Toolbox®.
# .PCD v.7 - Point Cloud Data file format
VERSION .7
FIELDS x y z
SIZE 4 4 4
TYPE F F F
COUNT 1 1 1
WIDTH 1665
HEIGHT 1
VIEWPOINT 0 0 0 1 0 0 0
POINTS 1665
DATA ascii
4.942866 -15.450792 1.991833
2.482039 -6.624411 -0.288208
1.456920 -6.772849 -0.241923
4.892705 -15.293997 4.302608
1.326973 -4.973155 0.938458
2.138402 -6.684383 -0.163307
0.960547 -3.645828 -1.758092
2.457316 -6.621668 -0.123284
1.773473 -6.731349 -0.202586
1.659537 -5.244222 -1.539815
1.789734 -6.793068 -1.404984
2.115552 -6.685252 0.000000
1.436413 -6.781064 -0.080696
2.126179 -6.718834 -1.096384
1.781253 -6.760877 -0.889938
2.456258 -6.618815 0.041032
1.775213 -6.737953 -0.040497
2.121382 -6.703677 -0.757390
1.438546 -6.791131 -0.648006
2.112566 -6.675817 0.162935
1.433927 -6.769325 0.080556
2.122437 -6.707010 -0.491923
1.781546 -6.761988 -0.570853
2.452477 -6.608629 0.205146
1.768859 -6.713836 0.121190
2.460992 -6.631573 -0.453331
1.439873 -6.797399 -0.404648
2.110769 -6.670136 0.407438
1.775808 -6.740211 0.283974
2.121699 -6.704677 -0.327579
1.778916 -6.752008 -0.365933
4.890709 -15.454890 1.990370
4.069928 -15.447712 1.304110
2.458435 -6.624682 -0.287882
1.433150 -6.765661 -0.241505
4.873777 -15.401385 4.328490
1.306330 -4.958272 0.934871
2.113773 -6.679630 -0.163028
0.946541 -3.649490 -1.758092
2.430495 -6.627300 -0.123214
1.744602 -6.726498 -0.202237
1.637092 -5.243202 -1.537658
1.764621 -6.803687 -1.405769
2.089866 -6.693326 0.000000
1.411178 -6.790446 -0.080743
2.101542 -6.730722 -1.096999
1.754283 -6.763826 -0.889433
2.429447 -6.624443 0.041009
1.748323 -6.740848 -0.040474
2.093255 -6.704181 -0.756534
1.411648 -6.792705 -0.647634
2.084533 -6.676246 0.162749
1.407109 -6.770865 0.080510
2.094289 -6.707493 -0.491365
1.754567 -6.764921 -0.570528
2.425707 -6.614244 0.205030
1.742062 -6.716708 0.121120
2.434135 -6.637226 -0.453075
1.412949 -6.798967 -0.404415
2.085141 -6.678193 0.407438
1.746904 -6.735374 0.283486
2.094748 -6.708961 -0.327393
1.749968 -6.747190 -0.365305
4.827779 -15.462188 1.988908
2.432979 -6.634073 -0.287882
1.408787 -6.778941 -0.241784
1.283330 -4.948015 0.932001
2.086917 -6.683880 -0.162935
0.932898 -3.649259 -1.756402
2.404619 -6.628225 -0.123074
1.721111 -6.732547 -0.202237
1.619914 -5.252564 -1.538736
1.738918 -6.802205 -1.404200
2.062953 -6.689113 0.000000
1.386666 -6.791411 -0.080696
2.076870 -6.734240 -1.096384
1.730662 -6.769908 -0.889433
2.404944 -6.629123 0.040986
1.722801 -6.739159 -0.040428
2.069840 -6.711447 -0.756534
1.387928 -6.797591 -0.647634
2.058859 -6.675839 0.162563
1.382665 -6.771817 0.080463
2.069687 -6.710949 -0.491086
1.731929 -6.774866 -0.570853
2.399876 -6.615153 0.204797
1.717615 -6.718873 0.121050
2.409590 -6.641930 -0.452819
1.388409 -6.799945 -0.404182
2.059463 -6.677798 0.406973
1.722392 -6.737559 0.283323
2.067783 -6.704777 -0.326835
1.725416 -6.749387 -0.365096
4.773776 -15.478946 1.988908
2.409806 -6.642526 -0.287882
1.385116 -6.783817 -0.241784
4.852979 -15.735759 4.412347
1.263126 -4.941027 0.929848
2.061216 -6.683482 -0.162749
2.380117 -6.632814 -0.123005
1.697600 -6.738513 -0.202237
1.604938 -5.269242 -1.541971
1.713248 -6.800626 -1.402631
2.037260 -6.688620 0.000000
1.362166 -6.792288 -0.080649
2.049896 -6.730105 -1.094539
1.706051 -6.772060 -0.888928
2.379088 -6.629947 0.040939
1.699267 -6.745131 -0.040428
2.042925 -6.707218 -0.755248
1.362626 -6.794585 -0.646891
2.035544 -6.682985 0.162563
1.358233 -6.772680 0.080417
2.042762 -6.706681 -0.490249
1.706323 -6.773139 -0.570202
2.375421 -6.619727 0.204681
1.694152 -6.724827 0.121050
2.383695 -6.642786 -0.452308
1.364665 -6.804750 -0.404182
2.034978 -6.681126 0.406741
1.697888 -6.739655 0.283160
2.044368 -6.711954 -0.326835
1.701846 -6.755369 -0.365096
4.715090 -15.480321 1.986958
3.892793 -15.452188 1.300855
2.386606 -6.650897 -0.287882
1.359856 -6.780772 -0.241505
6.545215 -21.488886 6.019096
1.244910 -4.941590 0.929131
2.037874 -6.690636 -0.162749
0.906926 -3.648330 -1.753021
2.357929 -6.636490 -0.122935
1.675457 -6.739934 -0.202121
1.585043 -5.263192 -1.538736
1.691874 -6.805975 -1.402631
2.016237 -6.694987 0.000000
1.342368 -6.804382 -0.080743
2.027603 -6.732727 -1.093925
1.682853 -6.769685 -0.887918
2.356909 -6.633620 0.040916
1.678068 -6.750437 -0.040428
2.022990 -6.717410 -0.755677
1.343586 -6.810554 -0.648006
2.013385 -6.685518 0.162470
1.337723 -6.780838 0.080463
2.022832 -6.716887 -0.490528
1.684074 -6.774596 -0.569877
2.351935 -6.619622 0.204448
1.672052 -6.726235 0.120980
2.361478 -6.646480 -0.452052
1.343280 -6.809004 -0.404182
2.013978 -6.687486 0.406741
1.677670 -6.748835 0.283323
2.023271 -6.718343 -0.326835
1.680615 -6.760682 -0.365096
4.666433 -15.495057 1.986958
3.844228 -15.464342 1.300855
2.361685 -6.647063 -0.287393
1.338547 -6.785011 -0.241505
6.485471 -21.535240 6.026343
1.226531 -4.934021 0.926978
2.017998 -6.700834 -0.162842
0.894186 -3.651473 -1.753021
2.332097 -6.637134 -0.122795
1.651921 -6.745741 -0.202121
1.568858 -5.276077 -1.540893
1.668107 -6.811839 -1.402631
1.991715 -6.698151 0.000000
1.317848 -6.805100 -0.080696
2.004089 -6.739764 -1.093925
1.659213 -6.775518 -0.887918
2.331087 -6.634259 0.040869
1.654495 -6.756253 -0.040428
1.998397 -6.720619 -0.755248
1.319048 -6.811293 -0.647634
1.990037 -6.692505 0.162470
1.314807 -6.789393 0.080510
1.998237 -6.720082 -0.490249
1.661365 -6.784306 -0.570202
2.327489 -6.624018 0.204332
1.647612 -6.728146 0.120910
2.336940 -6.650917 -0.451796
1.317986 -6.805811 -0.403717
1.988346 -6.686821 0.406276
1.655053 -6.758531 0.283486
1.998669 -6.721535 -0.326649
1.657006 -6.766507 -0.365096
4.608923 -15.499837 1.985496
3.790226 -15.477666 1.300855
2.337144 -6.651496 -0.287231
1.314855 -6.789642 -0.241505
6.425679 -21.609596 6.040837
1.200878 -4.903872 0.920521
1.991176 -6.696338 -0.162563
0.878461 -3.647831 -1.749640
2.306595 -6.646039 -0.122795
1.624135 -6.744259 -0.201888
1.546420 -5.274670 -1.538736
1.641939 -6.818194 -1.402631
1.965982 -6.705749 0.000000
1.290964 -6.806180 -0.080649
1.977084 -6.743617 -1.093310
1.633184 -6.781838 -0.887918
2.302974 -6.635603 0.040823
1.626668 -6.754778 -0.040381
1.970339 -6.720610 -0.754392
1.292142 -6.812395 -0.647263
1.962074 -6.692422 0.162284
1.287982 -6.790462 0.080463
1.970173 -6.720047 -0.489690
1.634369 -6.786758 -0.569877
2.299416 -6.625352 0.204099
1.622702 -6.738310 0.120980
2.310077 -6.656069 -0.451540
1.292588 -6.814745 -0.403950
1.961533 -6.690574 0.406043
1.626283 -6.753179 0.282997
1.969473 -6.717657 -0.326090
1.629142 -6.765052 -0.364677
4.547140 -15.509799 1.984521
2.307655 -6.649093 -0.286742
1.288030 -6.790713 -0.241365
6.064384 -20.684952 5.775806
1.171905 -4.866364 0.912629
1.963199 -6.696259 -0.162377
0.867395 -3.657930 -1.753021
2.282084 -6.650268 -0.122725
1.599660 -6.745997 -0.201772
1.527998 -5.280036 -1.538736
1.617224 -6.820067 -1.401847
1.940338 -6.704886 0.000000
1.267198 -6.810646 -0.080649
1.954630 -6.754274 -1.093925
1.608586 -6.783638 -0.887413
2.281095 -6.647385 0.040846
1.603079 -6.760416 -0.040381
1.946867 -6.727447 -0.754392
1.269083 -6.820779 -0.647634
1.938701 -6.699230 0.162284
1.264271 -6.794917 0.080463
1.945595 -6.723051 -0.489411
1.609749 -6.788544 -0.569551
2.276275 -6.633338 0.204099
1.597325 -6.736151 0.120840
2.284237 -6.656541 -0.451029
1.268062 -6.815289 -0.403717
1.937056 -6.693545 0.405810
1.602700 -6.758815 0.282997
1.946012 -6.724491 -0.326090
1.605517 -6.770698 -0.364677
4.491869 -15.521764 1.984033
2.283135 -6.653328 -0.286579
1.264318 -6.795168 -0.241365
1.250198 -4.320089 1.205062
1.150371 -4.851280 0.909041
1.938701 -6.699230 -0.162284
0.854249 -3.653577 -1.749640
2.258608 -6.649830 -0.122586
1.578460 -6.750989 -0.201772
1.510345 -5.281107 -1.537658
1.594898 -6.821295 -1.401062
1.918165 -6.707103 0.000000
1.245795 -6.814593 -0.080649
1.929055 -6.745181 -1.091465
1.588170 -6.792521 -0.887918
2.258914 -6.650731 0.040823
1.580922 -6.761523 -0.040358
1.926817 -6.737354 -0.754820
1.245500 -6.812979 -0.646519
1.916546 -6.701443 0.162191
1.242199 -6.794920 0.080417
1.923367 -6.725293 -0.489132
1.586599 -6.785803 -0.568900
2.252853 -6.632885 0.203866
1.576156 -6.741136 0.120840
2.264598 -6.667464 -0.451284
1.246645 -6.819240 -0.403717
1.916019 -6.699597 0.405810
1.582369 -6.767708 0.283160
1.923778 -6.726729 -0.325904
1.582420 -6.767930 -0.364258
4.438718 -15.520530 1.982083
2.260936 -6.656683 -0.286416
1.243683 -6.803039 -0.241505
1.129749 -4.831879 0.904737
1.918746 -6.709133 -0.162377
0.841664 -3.660216 -1.751330
2.232947 -6.654273 -0.122516
1.554600 -6.760626 -0.201888
1.490978 -5.286608 -1.537658
1.569006 -6.823272 -1.400278
1.892483 -6.710238 0.000000
1.220810 -6.819113 -0.080649
1.905392 -6.756010 -1.092080
1.562373 -6.794429 -0.887413
2.230705 -6.647590 0.040753
1.556129 -6.767272 -0.040358
1.901030 -6.740543 -0.754392
1.222626 -6.829259 -0.647634
1.893056 -6.712271 0.162284
1.217285 -6.799428 0.080417
1.898704 -6.732297 -0.489132
1.561717 -6.791573 -0.568900
2.225982 -6.633516 0.203634
1.550540 -6.742970 0.120771
2.237604 -6.668151 -0.450773
1.222346 -6.827694 -0.403950
1.891450 -6.706574 0.405810
1.555761 -6.765673 0.282834
1.898025 -6.729890 -0.325718
1.558498 -6.777576 -0.364468
4.379646 -15.529053 1.981108
3.562108 -15.490848 1.297601
2.235251 -6.661137 -0.286254
1.218035 -6.803617 -0.241365
1.104095 -4.801472 0.898279
1.894142 -6.716120 -0.162377
0.827282 -3.656060 -1.747949
2.207189 -6.654434 -0.122376
1.530993 -6.766012 -0.201888
1.473548 -5.295490 -1.538736
1.545179 -6.828708 -1.400278
1.867977 -6.712950 0.000000
1.197000 -6.823333 -0.080649
1.879679 -6.755003 -1.090850
1.536896 -6.792102 -0.886403
2.206228 -6.651538 0.040730
1.531615 -6.768762 -0.040335
1.875358 -6.739474 -0.753535
1.197404 -6.825640 -0.646891
1.868543 -6.714985 0.162191
1.192853 -6.799695 0.080370
1.874123 -6.735040 -0.488853
1.538001 -6.796983 -0.568900
2.202814 -6.641246 0.203634
1.526112 -6.744441 0.120701
2.213059 -6.672132 -0.450517
1.197126 -6.824052 -0.403485
1.868028 -6.713136 0.405810
1.531253 -6.767164 0.282671
1.874522 -6.736474 -0.325718
1.534831 -6.782976 -0.364468
4.322221 -15.532771 1.979646
2.211986 -6.668899 -0.286254
1.194970 -6.811764 -0.241505
1.154893 -4.150342 1.154333
1.082117 -4.782269 0.893974
1.870687 -6.722691 -0.162377
0.812788 -3.648168 -1.742878
2.185108 -6.661717 -0.122376
1.507677 -6.767149 -0.201772
1.456999 -5.304062 -1.539815
1.521672 -6.829966 -1.399493
1.845704 -6.719108 0.000000
1.175043 -6.831207 -0.080696
1.856220 -6.757389 -1.090235
1.513500 -6.793288 -0.885898
2.182911 -6.655018 0.040707
1.509159 -6.773804 -0.040335
1.854051 -6.749492 -0.753963
1.174087 -6.825648 -0.646519
1.844146 -6.713433 0.162005
1.170975 -6.807556 0.080417
1.850721 -6.737370 -0.488574
1.515452 -6.802046 -0.568900
2.179532 -6.644715 0.203517
1.504607 -6.753368 0.120771
2.190920 -6.679435 -0.450517
1.175166 -6.831920 -0.403717
1.842582 -6.707742 0.405113
1.508803 -6.772205 0.282671
1.848997 -6.731095 -0.325159
1.511460 -6.784129 -0.364258
4.270687 -15.547020 1.979646
2.187366 -6.668602 -0.285928
1.171696 -6.811750 -0.241365
1.139077 -4.146698 1.152262
1.050849 -4.716693 0.881060
1.846264 -6.721145 -0.162191
0.802377 -3.661607 -1.747949
2.160609 -6.665499 -0.122306
1.483191 -6.768465 -0.201656
1.438475 -5.309116 -1.539815
1.497822 -6.835236 -1.399493
1.821193 -6.721648 0.000000
1.150527 -6.831323 -0.080649
1.832622 -6.763827 -1.090235
1.490628 -6.802406 -0.886403
2.159668 -6.662596 0.040707
1.485506 -6.779030 -0.040335
1.828400 -6.748246 -0.753107
1.150254 -6.829704 -0.646519
1.819655 -6.715970 0.161911
1.147205 -6.811602 0.080417
1.825105 -6.736086 -0.488016
1.490846 -6.803400 -0.568575
2.156324 -6.652282 0.203517
1.480168 -6.754672 0.120701
2.166360 -6.683244 -0.450261
1.151975 -6.839919 -0.403950
1.819157 -6.714133 0.405113
1.484300 -6.773526 0.282509
1.826535 -6.741364 -0.325346
1.486060 -6.781559 -0.363840
4.213277 -15.550335 1.978183
3.410940 -15.565650 1.300855
2.162843 -6.672394 -0.285765
1.147248 -6.811855 -0.241225
1.119543 -4.132002 1.147086
1.022586 -4.666518 0.871015
1.821746 -6.723689 -0.162098
0.788188 -3.660978 -1.746259
2.133725 -6.665755 -0.122167
1.458373 -6.773855 -0.201656
1.415032 -5.299466 -1.535501
1.471109 -6.833011 -1.397924
1.795513 -6.724413 0.000000
1.124831 -6.831547 -0.080603
1.805779 -6.762860 -1.089005
1.466521 -6.811702 -0.886908
2.135233 -6.670467 0.040707
1.459808 -6.780519 -0.040311
1.802628 -6.751059 -0.752678
1.124567 -6.829945 -0.646147
1.795027 -6.722594 0.161911
1.120932 -6.807867 0.080323
1.799374 -6.738874 -0.487737
1.465900 -6.808818 -0.568575
2.128271 -6.648717 0.203168
1.457085 -6.767871 0.120840
2.141851 -6.691139 -0.450261
1.126897 -6.844095 -0.403950
1.793506 -6.716897 0.404880
1.459464 -6.778921 0.282509
1.800784 -6.744153 -0.325159
1.460354 -6.783056 -0.363630
4.153182 -15.554167 1.976721
3.345475 -15.539072 1.297601
2.137155 -6.676470 -0.285602
1.122274 -6.816015 -0.241225
1.103394 -4.132345 1.146051
0.991395 -4.604836 0.858818
1.797091 -6.730321 -0.162098
0.775179 -3.656344 -1.742878
2.110359 -6.664800 -0.122027
1.437086 -6.778403 -0.201656
1.398377 -5.303885 -1.535501
1.449636 -6.837599 -1.397924
1.773360 -6.726153 0.000000
1.103364 -6.835047 -0.080603
1.782509 -6.760857 -1.087775
1.443469 -6.808513 -0.885898
2.108230 -6.658076 0.040590
1.438499 -6.785072 -0.040311
1.781410 -6.756689 -0.752678
1.103105 -6.833444 -0.646147
1.773899 -6.728200 0.161911
1.101452 -6.823201 0.080463
1.779213 -6.748353 -0.488016
1.443676 -6.809490 -0.568250
2.107374 -6.655370 0.203168
1.434987 -6.768504 0.120771
2.119615 -6.694029 -0.450005
1.104754 -6.843659 -0.403717
1.774432 -6.730221 0.405345
1.438160 -6.783473 0.282509
1.778569 -6.745913 -0.324973
1.439866 -6.791518 -0.363840
4.103285 -15.563297 1.976233
3.304911 -15.588507 1.300855
2.113757 -6.675530 -0.285277
1.101493 -6.823453 -0.241365
1.088437 -4.128318 1.143980
0.972843 -4.588680 0.855231
1.776958 -6.739799 -0.162191
0.762411 -3.659028 -1.742878
2.087081 -6.672126 -0.122027
1.413415 -6.783379 -0.201656
1.379853 -5.308734 -1.535501
1.426558 -6.846457 -1.398709
1.749869 -6.732303 0.000000
1.078874 -6.834907 -0.080556
1.759892 -6.770864 -1.088390
1.418884 -6.809626 -0.885393
2.084975 -6.665395 0.040590
1.414805 -6.790052 -0.040311
1.755812 -6.755168 -0.751821
1.081728 -6.852989 -0.647634
1.750402 -6.734352 0.161911
1.077003 -6.823054 0.080417
1.755645 -6.754523 -0.488016
1.419084 -6.810585 -0.567924
2.082935 -6.658871 0.203052
1.409719 -6.765641 0.120631
2.093851 -6.693768 -0.449494
1.080858 -6.847474 -0.403717
1.748918 -6.728644 0.404880
1.415287 -6.792364 0.282671
1.754005 -6.748214 -0.324787
1.416149 -6.796503 -0.363840
4.046935 -15.569842 1.975258
2.092828 -6.690498 -0.285602
1.077043 -6.823308 -0.241225
1.072075 -4.124614 1.141910
0.949595 -4.557377 0.848773
1.752414 -6.742092 -0.162098
0.746816 -3.651142 -1.737806
2.060253 -6.672088 -0.121888
1.389345 -6.792430 -0.201772
1.361343 -5.317488 -1.536580
1.399098 -6.840112 -1.396355
1.724191 -6.734796 0.000000
1.733104 -6.769610 -1.087161
1.394711 -6.818667 -0.885898
2.060532 -6.672992 0.040590
1.389108 -6.791273 -0.040288
1.732029 -6.765411 -0.752250
1.055391 -6.849036 -0.646891
1.724716 -6.736847 0.161818
1.053207 -6.834862 0.080510
1.728898 -6.753181 -0.487458
1.394912 -6.819647 -0.568250
2.057336 -6.662640 0.202936
1.384912 -6.770761 0.120631
2.068126 -6.697584 -0.449238
1.055754 -6.851389 -0.403717
1.721274 -6.723404 0.404182
1.389582 -6.793590 0.282509
1.730251 -6.758468 -0.324973
1.391230 -6.801647 -0.363840
3.986889 -15.573033 1.973796
3.173304 -15.514110 1.292719
2.064755 -6.686667 -0.285114
1.053855 -6.839063 -0.241644
1.053118 -4.113544 1.137769
0.917114 -4.483720 0.834424
1.726700 -6.744596 -0.162005
0.733429 -3.653855 -1.737806
2.034619 -6.675769 -0.121818
1.362866 -6.789637 -0.201539
1.376334 -6.856730 -1.398709
1.698517 -6.737191 0.000000
1.708280 -6.775917 -1.087161
1.368929 -6.819843 -0.885393
2.034894 -6.676673 0.040567
1.364207 -6.796319 -0.040288
1.707221 -6.771713 -0.752250
1.030281 -6.852858 -0.646891
1.698058 -6.735368 0.161632
0.693361 -4.611854 0.054294
1.703159 -6.755602 -0.487179
1.370692 -6.828622 -0.568575
2.032902 -6.670136 0.202936
1.359300 -6.771872 0.120561
2.042400 -6.701301 -0.448982
1.031823 -6.863111 -0.404182
1.697597 -6.733539 0.404415
1.362313 -6.786881 0.282020
1.703515 -6.757015 -0.324601
1.365505 -6.802785 -0.363630
3.928813 -15.583689 1.973309
2.037903 -6.686544 -0.284788
1.037090 -4.113629 1.136733
0.878215 -4.375164 0.813617
1.700990 -6.747001 -0.161911
0.719969 -3.652836 -1.736116
2.008999 -6.675171 -0.121678
1.339158 -6.794353 -0.201539
1.321400 -5.319616 -1.534423
1.350116 -6.849948 -1.396355
1.673062 -6.735315 0.000000
0.667966 -4.550929 -0.053549
1.684618 -6.781838 -1.087161
1.345116 -6.824581 -0.885393
2.011577 -6.683736 0.040567
1.340476 -6.801040 -0.040288
1.682614 -6.773772 -0.751821
1.674537 -6.741255 0.161632
0.662157 -4.511356 0.053083
1.678606 -6.757635 -0.486900
1.345306 -6.825542 -0.567924
2.008455 -6.673362 0.202819
1.337201 -6.784423 0.120701
2.018996 -6.708389 -0.448982
1.673120 -6.735549 0.404182
1.339388 -6.795516 0.282183
1.678956 -6.759042 -0.324415
1.340979 -6.803591 -0.363421
3.872478 -15.589601 1.972334
2.013399 -6.689790 -0.284625
1.022724 -4.117225 1.136733
0.859133 -4.358899 0.810030
1.676465 -6.749016 -0.161818
0.709870 -3.662198 -1.739497
1.989159 -6.685283 -0.121748
1.317045 -6.794601 -0.201423
1.301931 -5.312518 -1.531188
1.329336 -6.858006 -1.397140
1.653798 -6.748308 0.000000
0.646844 -4.505496 -0.052990
1.662363 -6.783258 -1.086546
1.322159 -6.820981 -0.884383
1.987147 -6.678521 0.040497
1.318342 -6.801290 -0.040265
1.659432 -6.771299 -0.750965
1.652398 -6.742598 0.161539
0.645707 -4.497577 0.052897
1.657368 -6.762875 -0.486900
1.323856 -6.829735 -0.567924
1.986339 -6.675807 0.202703
1.315119 -6.784663 0.120631
1.995634 -6.707047 -0.448470
1.652901 -6.744650 0.404415
1.318792 -6.803614 0.282346
1.657713 -6.764284 -0.324415
1.319598 -6.807769 -0.363421
3.820648 -15.590122 1.970871
3.013384 -15.545962 1.292719
1.993512 -6.699913 -0.284788
0.645926 -4.499099 -0.158723
1.007025 -4.109159 1.133627
0.841691 -4.342260 0.806442
1.656206 -6.758134 -0.161911
0.696442 -3.664775 -1.739497
1.963516 -6.688691 -0.121678
1.292879 -6.803310 -0.201539
1.286063 -5.332232 -1.535501
1.302726 -6.855126 -1.395571
1.627177 -6.746548 0.000000
0.626449 -4.480108 -0.052664
1.636563 -6.785464 -1.085931
1.297890 -6.829679 -0.884888
1.962655 -6.685760 0.040497
1.291911 -6.798217 -0.040218
1.633670 -6.773469 -0.750536
0.637568 -4.559625 -0.429773
1.628612 -6.752497 0.161632
0.624234 -4.464263 0.052478
1.632569 -6.768904 -0.486900
1.298070 -6.830624 -0.567599
1.960731 -6.679206 0.202586
1.289496 -6.785510 0.120561
1.971038 -6.714316 -0.448470
0.634280 -4.536109 -0.266742
1.627233 -6.746781 0.404182
1.293101 -6.804476 0.282183
1.631972 -6.766430 -0.324229
1.294637 -6.812560 -0.363421
3.764412 -15.607882 1.971359
2.974992 -15.654820 1.300855
1.965564 -6.695670 -0.284300
0.627217 -4.485600 -0.158165
0.993770 -4.120335 1.135698
0.825035 -4.341450 0.805725
1.630487 -6.760271 -0.161818
0.682290 -3.656373 -1.734425
1.939097 -6.687483 -0.121539
1.269578 -6.803630 -0.201423
1.264811 -5.321477 -1.531188
1.281425 -6.867120 -1.397140
1.604795 -6.751906 0.000000
0.607804 -4.454420 -0.052338
1.614966 -6.794699 -1.086546
1.274507 -6.830045 -0.884383
1.940474 -6.692231 0.040497
1.270828 -6.810328 -0.040265
1.611199 -6.778850 -0.750536
0.617598 -4.526199 -0.426427
1.606210 -6.757860 0.161632
0.611048 -4.478198 0.052618
1.610113 -6.774281 -0.486900
1.276143 -6.838811 -0.567924
1.939685 -6.689512 0.202703
1.267721 -6.793679 0.120631
1.947650 -6.716981 -0.448214
0.613295 -4.494665 -0.264184
1.603928 -6.748255 0.403950
1.270529 -6.808727 0.282183
1.609525 -6.771805 -0.324229
1.272771 -6.820744 -0.363630
3.711715 -15.616416 1.970871
2.915749 -15.625409 1.297601
1.943350 -6.702151 -0.284300
0.608015 -4.455968 -0.157048
0.981887 -4.131125 1.137769
0.809190 -4.336426 0.804290
1.607135 -6.761751 -0.161725
0.668871 -3.655166 -1.732735
1.913541 -6.686521 -0.121399
1.245102 -6.804087 -0.201307
1.243595 -5.314608 -1.527953
1.256741 -6.867692 -1.396355
1.580306 -6.753572 0.000000
0.590671 -4.444619 -0.052199
1.589438 -6.792597 -1.085316
1.250659 -6.834452 -0.884383
1.916002 -6.695117 0.040474
1.247768 -6.818657 -0.040288
1.587528 -6.784432 -0.750536
0.597598 -4.496743 -0.423453
1.580790 -6.755638 0.161446
0.589617 -4.436689 0.052105
1.584639 -6.772088 -0.486342
1.252264 -6.843223 -0.567924
1.914123 -6.688553 0.202470
1.243280 -6.794129 0.120561
1.924192 -6.723738 -0.448214
0.593920 -4.469069 -0.262556
1.580363 -6.753812 0.403950
1.246036 -6.809188 0.282020
1.584057 -6.769600 -0.323857
1.247517 -6.817286 -0.363212
3.655374 -15.621546 1.969896
2.850425 -15.576666 1.292719
1.918844 -6.705051 -0.284137
0.590878 -4.446176 -0.156629
0.967461 -4.134527 1.137769
0.789799 -4.315998 0.799985
1.583523 -6.767319 -0.161725
0.656748 -3.664730 -1.736116
1.891193 -6.701187 -0.121539
1.220155 -6.808605 -0.201307
1.224972 -5.322884 -1.529032
1.230870 -6.868392 -1.395571
1.554645 -6.755421 0.000000
0.571814 -4.426920 -0.051966
1.563645 -6.794526 -1.084701
1.226300 -6.842896 -0.884888
1.890363 -6.698246 0.040451
1.222062 -6.819247 -0.040265
1.561759 -6.786329 -0.750108
0.577031 -4.467305 -0.420479
1.556915 -6.765284 0.161539
0.569765 -4.411054 0.051780
1.558913 -6.773962 -0.486063
1.226470 -6.843843 -0.567599
1.887423 -6.687828 0.202237
1.219075 -6.802577 0.120631
1.899535 -6.730745 -0.448214
0.576001 -4.459335 -0.261858
1.554703 -6.755668 0.403717
1.221775 -6.817644 0.282183
1.559234 -6.775361 -0.323857
1.221817 -6.817880 -0.363002
3.597202 -15.630968 1.969409
1.893170 -6.708192 -0.283974
0.572529 -4.432453 -0.156071
0.952301 -4.138046 1.137769
0.773974 -4.318864 0.799985
1.557812 -6.769181 -0.161632
0.642698 -3.659859 -1.732735
1.863499 -6.692338 -0.121259
1.196381 -6.812823 -0.201307
1.207234 -5.330884 -1.530110
1.206208 -6.868783 -1.394786
1.531055 -6.760806 0.000000
0.551871 -4.393173 -0.051547
1.539045 -6.796088 -1.084086
1.200348 -6.835411 -0.883373
1.864824 -6.697097 0.040404
1.196867 -6.815592 -0.040218
1.538939 -6.795619 -0.750536
0.559448 -4.453485 -0.418992
1.532407 -6.766777 0.161446
0.551871 -4.393173 0.051547
1.535257 -6.779363 -0.486063
1.201883 -6.844155 -0.567273
1.864066 -6.694376 0.202237
1.194630 -6.802852 0.120561
1.873887 -6.729645 -0.447703
0.555455 -4.421698 -0.259533
1.531993 -6.764949 0.403950
1.197969 -6.821867 0.282183
1.535574 -6.780762 -0.323857
1.198011 -6.822104 -0.363002
3.541741 -15.639558 1.968921
1.868670 -6.710910 -0.283811
0.554562 -4.414592 -0.155373
0.936997 -4.137576 1.136733
0.758213 -4.317664 0.799268
1.534174 -6.774577 -0.161632
0.629304 -3.658508 -1.731045
1.841186 -6.702657 -0.121329
1.173270 -6.820898 -0.201423
1.189456 -5.338826 -1.531188
1.181559 -6.869086 -1.394002
1.507446 -6.766109 0.000000
0.533140 -4.367280 -0.051221
1.516172 -6.805276 -1.084701
1.177826 -6.847380 -0.884383
1.840376 -6.699708 0.040381
1.173747 -6.823671 -0.040242
1.512613 -6.789303 -0.749251
0.541003 -4.431691 -0.416761
1.508777 -6.772085 0.161446
0.534594 -4.379191 0.051360
1.510716 -6.780785 -0.485784
1.176634 -6.840452 -0.566622
1.839628 -6.696986 0.202121
1.170877 -6.806981 0.120561
1.850385 -6.736145 -0.447703
0.538081 -4.407754 -0.258602
1.507501 -6.766357 0.403717
1.174149 -6.826007 0.282183
1.511027 -6.782181 -0.323671
1.174190 -6.826244 -0.363002
3.486263 -15.647949 1.968434
1.845233 -6.717391 -0.283811
0.536242 -4.392692 -0.154535
0.921708 -4.137051 1.135698
0.743137 -4.320284 0.799268
1.509647 -6.775988 -0.161539
0.617771 -3.664149 -1.732735
1.818949 -6.708726 -0.121329
1.150645 -6.824751 -0.201423
1.170920 -5.338978 -1.530110
1.160078 -6.880702 -1.395571
1.484143 -6.767164 0.000000
0.518183 -4.365053 -0.051174
1.492750 -6.806406 -1.084086
1.154452 -6.847336 -0.883878
1.819195 -6.709635 0.040404
1.151112 -6.827526 -0.040242
1.490091 -6.794282 -0.749251
0.524895 -4.421596 -0.415646
1.486312 -6.777051 0.161446
0.517240 -4.357109 0.051081
1.488221 -6.785758 -0.485784
1.155269 -6.852178 -0.567273
1.818456 -6.706908 0.202237
1.148962 -6.814770 0.120631
1.825947 -6.734538 -0.447191
0.522520 -4.401584 -0.258137
1.485054 -6.771319 0.403717
1.150178 -6.821981 0.281857
1.488527 -6.787154 -0.323671
1.152211 -6.834040 -0.363212
3.434353 -15.659425 1.968434
1.822947 -6.723474 -0.283811
0.519316 -4.374598 -0.153837
0.908812 -4.143858 1.136733
0.730115 -4.330486 0.800703
1.487168 -6.780957 -0.161539
0.604387 -3.662706 -1.731045
1.794488 -6.711171 -0.121259
1.126816 -6.828726 -0.201423
1.149841 -5.331737 -1.526875
1.136692 -6.888580 -1.396355
1.462199 -6.780123 0.000000
0.501113 -4.350941 -0.050988
1.468982 -6.811575 -1.084086
1.130544 -6.851324 -0.883878
1.794731 -6.712080 0.040381
1.127274 -6.831502 -0.040242
1.466366 -6.799442 -0.749251
0.508547 -4.415488 -0.414902
1.461804 -6.778288 0.161353
0.500655 -4.346968 0.050941
1.463685 -6.787011 -0.485505
1.132642 -6.864036 -0.567924
1.796067 -6.717078 0.202354
1.123865 -6.810847 0.120491
1.803460 -6.744727 -0.447447
0.505325 -4.387513 -0.257207
1.460568 -6.772558 0.403485
1.126358 -6.825954 0.281857
1.463143 -6.784497 -0.323298
1.128349 -6.838020 -0.363212
3.377161 -15.659675 1.966971
1.798435 -6.725935 -0.283648
0.501756 -4.356528 -0.153139
0.896786 -4.158336 1.139839
0.711150 -4.309712 0.796398
1.462647 -6.782198 -0.161446
0.591020 -3.661215 -1.729354
1.770030 -6.713527 -0.121190
1.103609 -6.836565 -0.201539
1.131222 -5.335718 -1.526875
1.110764 -6.880888 -1.394002
1.436034 -6.773447 0.000000
0.484591 -4.340738 -0.050848
1.445196 -6.816662 -1.084086
1.107254 -6.859145 -0.884383
1.772310 -6.722172 0.040404
1.104058 -6.839344 -0.040265
1.443447 -6.808411 -0.749679
0.490479 -4.393487 -0.412672
1.437304 -6.779438 0.161260
0.483703 -4.332788 0.050755
1.439985 -6.792079 -0.485505
1.107404 -6.860076 -0.567273
1.770570 -6.715574 0.202121
1.100721 -6.818676 0.120561
1.778888 -6.747121 -0.447191
0.487791 -4.369407 -0.256044
1.436918 -6.777616 0.403485
1.103161 -6.833790 0.282020
1.441937 -6.801290 -0.323857
1.103836 -6.837973 -0.363002
3.322477 -15.671369 1.966971
1.772908 -6.724443 -0.283323
0.484328 -4.338388 -0.152441
0.882265 -4.161442 1.139839
0.697356 -4.319938 0.797833
1.438963 -6.787262 -0.161446
0.578237 -3.663255 -1.729354
1.747591 -6.723536 -0.121259
1.078491 -6.832477 -0.201307
1.110233 -5.328322 -1.523640
1.087350 -6.888599 -1.394786
1.413198 -6.782335 0.000000
0.469006 -4.338428 -0.050802
1.419780 -6.813926 -1.082856
1.083304 -6.862968 -0.884383
1.746822 -6.720575 0.040358
1.080801 -6.847107 -0.040288
1.418861 -6.809514 -0.749251
0.473428 -4.379334 -0.411185
1.413631 -6.784414 0.161260
0.468146 -4.330474 0.050709
1.417081 -6.800971 -0.485784
1.084073 -6.867838 -0.567599
1.746112 -6.717844 0.202005
1.077536 -6.826427 0.120631
1.752312 -6.741700 -0.446424
0.472107 -4.367113 -0.255812
1.413251 -6.782590 0.403485
0.737812 -4.674202 0.192790
1.418187 -6.806282 -0.323857
1.078715 -6.833893 -0.362584
1.748420 -6.726723 -0.283160
0.467893 -4.328130 -0.152022
0.870886 -4.179626 1.143980
0.681659 -4.318459 0.797115
1.416078 -6.796159 -0.161539
0.564340 -3.658086 -1.725973
1.721133 -6.717972 -0.121050
1.057073 -6.852006 -0.201772
1.093172 -5.339713 -1.525797
1.063297 -6.892352 -1.394786
1.388712 -6.783308 0.000000
0.453027 -4.332082 -0.050709
1.396779 -6.822713 -1.083471
1.058736 -6.862787 -0.883878
1.723351 -6.726631 0.040358
1.395083 -6.814425 -0.749251
0.455239 -4.353233 -0.408582
1.389138 -6.785390 0.161167
0.452195 -4.324126 0.050615
1.392532 -6.801967 -0.485505
1.060093 -6.871581 -0.567599
1.721659 -6.720026 0.201888
1.727778 -6.743908 -0.446168
0.453953 -4.340934 -0.254184
1.388766 -6.783570 0.403252
0.712960 -4.621450 0.190510
1.392818 -6.803362 -0.323484
1.056680 -6.849461 -0.363212
1.725920 -6.736656 -0.283323
0.451950 -4.321784 -0.151743
0.857065 -4.186425 1.145015
0.665980 -4.316923 0.796398
1.390742 -6.793225 -0.161353
0.550488 -3.652864 -1.722592
1.696694 -6.720060 -0.120980
1.072249 -5.332166 -1.522562
1.365815 -6.792035 0.000000
0.437903 -4.333637 -0.050709
1.373735 -6.831421 -1.084086
1.035957 -6.874288 -0.884888
1.700840 -6.736484 0.040381
0.687854 -4.564384 -0.026828
1.371288 -6.819253 -0.749251
0.436838 -4.323095 -0.405608
1.366233 -6.794117 0.161260
0.436696 -4.321698 0.050569
1.367994 -6.802874 -0.485226
1.036695 -6.879181 -0.567924
1.699170 -6.729870 0.202005
1.704227 -6.749898 -0.446168
0.437995 -4.334545 -0.253719
1.364291 -6.784461 0.403020
0.687891 -4.564629 0.188068
1.369061 -6.808182 -0.323484
1.031575 -6.845207 -0.362793
0.979939 -4.873120 0.610322
1.701416 -6.738764 -0.283160
0.435656 -4.311404 -0.151324
0.842447 -4.189391 1.145015
0.650908 -4.319221 0.796398
1.367810 -6.801959 -0.161446
0.536678 -3.647590 -1.719211
1.673226 -6.725943 -0.120980
1.054375 -5.339656 -1.523640
1.341322 -6.792837 0.000000
0.422773 -4.335139 -0.050709
1.349114 -6.832298 -1.083471
1.010800 -6.870011 -0.883878
1.676350 -6.738498 0.040358
0.666677 -4.531141 -0.026619
1.345935 -6.816195 -0.748394
0.422131 -4.328557 -0.405980
1.341734 -6.794922 0.161167
0.420832 -4.315235 0.050476
1.344239 -6.807608 -0.485226
1.674703 -6.731881 0.201888
0.664258 -4.514700 0.079653
1.680655 -6.755806 -0.446168
0.422861 -4.336048 -0.253719
1.340601 -6.789182 0.403020
0.667299 -4.535370 0.186765
1.344514 -6.809000 -0.323298
0.954462 -4.833666 0.604959
1.677883 -6.744662 -0.283160
0.420216 -4.308919 -0.151185
0.830064 -4.203678 1.148121
0.635827 -4.321467 0.796398
1.343284 -6.802769 -0.161353
0.526127 -3.660115 -1.724283
1.651865 -6.735339 -0.121050
0.653658 -4.547315 -0.133700
0.933950 -4.813726 -1.372678
0.653513 -4.546309 -0.918613
1.318789 -6.797248 0.000000
0.407269 -4.324571 -0.050569
1.326450 -6.836734 -1.083471
0.661121 -4.599236 -0.591440
1.653042 -6.740136 0.040335
0.647094 -4.501653 -0.026433
1.323324 -6.820621 -0.748394
0.405907 -4.310107 -0.404121
1.319955 -6.803260 0.161260
0.405769 -4.308642 0.050383
1.320897 -6.808111 -0.484947
1.651417 -6.733514 0.201772
0.644730 -4.485209 0.079094
1.658242 -6.761342 -0.446168
0.406233 -4.313572 -0.252323
1.318079 -6.793591 0.403020
0.649412 -4.517778 0.185951
1.321927 -6.813421 -0.323298
0.653038 -4.543006 -0.240536
0.933890 -4.813419 0.602035
1.652651 -6.738544 -0.282671
0.405549 -4.306309 -0.151045
0.816855 -4.210200 1.149157
0.622053 -4.327446 0.797115
1.321479 -6.811112 -0.161446
0.511703 -3.654838 -1.720902
1.625291 -6.733572 -0.120910
0.629780 -4.498204 -0.132187
0.635758 -4.540905 -0.917045
1.292372 -6.794177 0.000000
0.389254 -4.302134 -0.050289
1.300644 -6.837667 -1.082856
0.638758 -4.562332 -0.586390
1.627388 -6.742261 0.040311
0.626154 -4.472304 -0.026247
1.297573 -6.821519 -0.747966
0.389748 -4.307600 -0.403749
1.294264 -6.804124 0.161167
0.390335 -4.314084 0.050429
1.295189 -6.808987 -0.484668
0.637355 -4.552309 -0.375253
1.624851 -6.731748 0.201539
0.626069 -4.471698 0.078815
1.630640 -6.755733 -0.445400
0.391140 -4.322986 -0.252788
1.293917 -6.802299 0.403252
0.629524 -4.496379 0.184974
1.298439 -6.826070 -0.323671
0.632506 -4.517677 -0.239071
0.916242 -4.816810 0.602035
1.628880 -6.748442 -0.282834
0.389403 -4.303786 -0.150905
0.804306 -4.228349 1.153298
0.606188 -4.329698 0.797115
1.297253 -6.819838 -0.161539
0.499089 -3.652924 -1.719211
1.602027 -6.735034 -0.120840
0.611612 -4.476499 -0.131489
0.892541 -4.778478 -1.360816
0.618041 -4.523558 -0.913122
1.271303 -6.806289 0.000000
0.376027 -4.315355 -0.050429
1.277237 -6.838057 -1.082241
0.618254 -4.525110 -0.581339
1.604095 -6.743729 0.040288
0.608070 -4.450577 -0.026107
1.275675 -6.829693 -0.748394
0.374770 -4.300934 -0.403006
1.271693 -6.808378 0.161167
0.376027 -4.315355 0.050429
1.273335 -6.817166 -0.484947
0.619017 -4.530696 -0.373300
1.603443 -6.740989 0.201656
0.609612 -4.461863 0.078606
1.607304 -6.757220 -0.445145
0.375763 -4.312326 -0.252091
1.269886 -6.798701 0.402787
0.610823 -4.470723 0.183834
1.273594 -6.818555 -0.323112
0.612655 -4.484130 -0.237187
0.891516 -4.772989 0.596185
1.605567 -6.749918 -0.282671
0.374782 -4.301071 -0.150766
0.788861 -4.223397 1.151227
0.590761 -4.323886 0.795680
1.273162 -6.816240 -0.161353
0.484422 -3.640269 -1.712449
1.578508 -6.740585 -0.120840
0.594401 -4.466717 -0.131140
0.873774 -4.770198 -1.357582
0.599661 -4.506247 -0.909200
1.247538 -6.810685 0.000000
0.360961 -4.316641 -0.050429
1.254072 -6.846361 -1.082856
0.596697 -4.483975 -0.575783
1.580546 -6.749287 0.040288
0.593059 -4.456637 -0.026130
1.251111 -6.830193 -0.747966
0.359755 -4.302216 -0.403006
1.247921 -6.812776 0.161167
0.359961 -4.304684 0.050289
1.250250 -6.825494 -0.485226
0.599517 -4.505167 -0.371022
1.578992 -6.742652 0.201539
0.590341 -4.436212 0.078117
1.584618 -6.766675 -0.445400
0.361373 -4.321569 -0.252556
1.246147 -6.803092 0.402787
0.591523 -4.445096 0.182694
1.250506 -6.826890 -0.323298
0.592783 -4.454564 -0.235512
0.871274 -4.756546 0.593747
1.581996 -6.755481 -0.282671
0.358434 -4.286418 -0.150207
0.775507 -4.233726 1.153298
0.575665 -4.325922 0.795680
1.248641 -6.816709 -0.161260
0.471712 -3.641937 -1.712449
1.554071 -6.742157 -0.120771
0.576751 -4.452903 -0.130675
0.854395 -4.758054 -1.353268
0.580904 -4.484973 -0.904493
1.223049 -6.811062 0.000000
0.346849 -4.329836 -0.050569
1.230865 -6.854588 -1.083471
0.580022 -4.478160 -0.574773
1.556078 -6.750866 0.040265
0.574930 -4.438847 -0.026014
1.227261 -6.834518 -0.747966
0.344099 -4.295505 -0.402262
1.224132 -6.817091 0.161167
0.344933 -4.305914 0.050289
1.225712 -6.825890 -0.484947
0.580715 -4.483510 -0.369069
1.556344 -6.752018 0.201656
0.573311 -4.426346 0.077908
1.561885 -6.776056 -0.445656
0.345648 -4.314844 -0.252091
1.223098 -6.811332 0.403020
0.569843 -4.399570 0.180740
1.224549 -6.819416 -0.322740
0.574152 -4.432838 -0.234256
0.846244 -4.712667 0.587898
1.560201 -6.768751 -0.282997
0.344108 -4.295613 -0.150487
0.760040 -4.232604 1.152262
0.560561 -4.327905 0.795680
1.224838 -6.821026 -0.161260
1.530527 -6.747541 -0.120771
0.559205 -4.439022 -0.130209
0.836445 -4.753420 -1.351112
0.564265 -4.479191 -0.902924
1.199266 -6.815289 0.000000
0.330817 -4.319056 -0.050429
1.206245 -6.854949 -1.082856
0.560419 -4.448662 -0.570732
1.533388 -6.760157 0.040288
0.554932 -4.405109 -0.025805
1.203397 -6.838760 -0.747966
0.330015 -4.308593 -0.403377
1.200328 -6.821321 0.161167
0.329595 -4.303103 0.050243
1.200494 -6.822267 -0.484389
0.563068 -4.469687 -0.367767
1.530997 -6.749611 0.201423
0.553858 -4.396577 0.077349
1.537339 -6.777574 -0.445400
0.329974 -4.308060 -0.251626
1.199314 -6.815559 0.403020
0.553483 -4.393601 0.180415
1.201430 -6.827583 -0.322926
0.557177 -4.422925 -0.233628
0.824972 -4.688221 0.584485
1.534796 -6.766361 -0.282671
0.329722 -4.304760 -0.150766
0.747270 -4.246647 1.155368
0.545450 -4.329835 0.795680
1.201021 -6.825260 -0.161260
0.445395 -3.637945 -1.709068
1.506965 -6.752842 -0.120771
0.539334 -4.405228 -0.129162
0.815922 -4.733536 -1.344642
0.545290 -4.453880 -0.897433
1.175470 -6.819434 0.000000
0.314864 -4.308217 -0.050289
1.181639 -6.855224 -1.082241
0.544405 -4.446652 -0.570227
1.509783 -6.765468 0.040288
0.538095 -4.395108 -0.025735
1.179518 -6.842919 -0.747966
0.314974 -4.309719 -0.403377
1.176510 -6.825470 0.161167
0.315156 -4.312206 0.050336
1.178029 -6.834280 -0.484947
0.544071 -4.443925 -0.365489
1.506557 -6.751012 0.201307
0.536078 -4.378634 0.077000
1.511933 -6.775107 -0.444889
0.316390 -4.329099 -0.252788
1.175517 -6.819704 0.403020
0.536201 -4.379639 0.179763
1.178269 -6.835673 -0.323112
0.540279 -4.412948 -0.233000
0.800510 -4.644122 0.578636
1.509427 -6.763875 -0.282346
0.313819 -4.293923 -0.150347
0.732442 -4.249229 1.155368
0.530333 -4.331713 0.795680
1.177869 -6.833352 -0.161353
0.432265 -3.635878 -1.707378
1.483384 -6.758061 -0.120771
0.521121 -4.383263 -0.128464
0.796830 -4.721162 -1.340329
0.527424 -4.436282 -0.893510
1.151658 -6.823495 0.000000
0.299823 -4.309289 -0.050289
1.157702 -6.859306 -1.082241
0.526538 -4.428825 -0.567702
1.484442 -6.762884 0.040242
0.518972 -4.365184 -0.025549
1.154963 -6.843074 -0.747537
0.299375 -4.302846 -0.402634
1.151347 -6.821649 0.160981
0.299823 -4.309289 0.050289
1.153502 -6.834416 -0.484668
0.527144 -4.433920 -0.364513
1.483839 -6.760136 0.201423
0.518429 -4.360622 0.076651
1.487419 -6.776444 -0.444633
0.300445 -4.318227 -0.252091
1.151039 -6.819829 0.402787
0.519022 -4.365609 0.179112
1.153736 -6.835804 -0.322926
0.523457 -4.402908 -0.232372
0.759847 -4.502040 0.560599
1.484950 -6.765199 -0.282183
0.298551 -4.291005 -0.150207
0.718248 -4.255570 1.156404
0.514745 -4.329630 0.794963
1.152678 -6.829535 -0.161167
0.419986 -3.640966 -1.709068
1.458097 -6.755379 -0.120631
0.503068 -4.361223 -0.127766
0.772184 -4.674509 -1.326311
0.506991 -4.395235 -0.884881
1.127833 -6.827474 0.000000
0.285834 -4.326274 -0.050476
1.134396 -6.867205 -1.082856
0.507892 -4.403043 -0.564166
1.459982 -6.764114 0.040218
0.502356 -4.355049 -0.025479
1.131717 -6.850987 -0.747966
0.283828 -4.295917 -0.401890
1.127528 -6.825626 0.160981
0.284516 -4.306319 0.050243
1.130938 -6.846274 -0.485226
0.509379 -4.415931 -0.362886
1.459389 -6.761365 0.201307
0.500913 -4.342540 0.076302
1.464597 -6.785497 -0.444889
0.285633 -4.323233 -0.252323
1.126576 -6.819864 0.402555
0.503322 -4.363423 0.178949
1.130518 -6.843732 -0.323112
0.506253 -4.388835 -0.231534
0.735715 -4.453743 0.554262
1.462169 -6.774248 -0.282346
0.284098 -4.299998 -0.150487
0.702759 -4.254239 1.155368
0.498726 -4.323582 0.793528
1.128831 -6.833517 -0.161167
0.407677 -3.646013 -1.710759
1.434507 -6.760427 -0.120631
0.486064 -4.347058 -0.127300
0.747873 -4.627742 -1.312293
0.489031 -4.373590 -0.880175
1.103355 -6.827420 0.000000
0.269981 -4.315269 -0.050336
1.109787 -6.867221 -1.082241
0.489433 -4.377185 -0.560631
1.437192 -6.773082 0.040242
0.486262 -4.348825 -0.025433
1.107161 -6.850970 -0.747537
0.269577 -4.308806 -0.403006
1.103695 -6.829520 0.160981
0.270731 -4.327246 0.050476
1.105124 -6.838363 -0.484389
0.491303 -4.393910 -0.360933
1.434948 -6.762507 0.201190
0.485752 -4.344262 0.076302
1.440074 -6.786663 -0.444633
0.270291 -4.320219 -0.252091
0.756836 -4.683201 0.276277
0.486311 -4.349266 0.178298
1.106622 -6.847637 -0.323112
0.488711 -4.370727 -0.230488
0.714464 -4.421009 0.549874
1.437684 -6.775401 -0.282183
0.270085 -4.316923 -0.151045
0.690370 -4.271923 1.159509
0.484068 -4.329207 0.794245
1.104970 -6.837416 -0.161167
0.395729 -3.654622 -1.714140
1.410900 -6.765394 -0.120631
0.469166 -4.332828 -0.126835
0.729310 -4.615106 -1.307980
0.472073 -4.359672 -0.877037
1.079517 -6.831230 0.000000
0.255389 -4.324172 -0.050429
1.085810 -6.871054 -1.082241
0.470734 -4.347308 -0.556590
1.414358 -6.781973 0.040265
0.469787 -4.338567 -0.025363
1.084482 -6.862649 -0.748394
0.253831 -4.297794 -0.401890
1.079849 -6.833332 0.160981
0.254210 -4.304208 0.050196
1.081247 -6.842179 -0.484389
0.474675 -4.383708 -0.359956
1.411335 -6.767475 0.201190
0.468432 -4.326050 0.075953
1.417191 -6.795557 -0.444889
0.255445 -4.325122 -0.252323
0.734251 -4.646372 0.273951
0.470697 -4.346964 0.178135
1.082090 -6.847512 -0.322926
0.470011 -4.340636 -0.228813
0.698408 -4.419556 0.549387
1.414026 -6.780378 -0.282183
0.254072 -4.301877 -0.150487
0.676058 -4.278123 1.160545
0.469378 -4.334783 0.794963
1.082346 -6.849131 -0.161353
0.383724 -3.663192 -1.717521
1.388079 -6.774196 -0.120701
0.453205 -4.326486 -0.126602
0.709668 -4.594783 -1.301510
0.456443 -4.357392 -0.876252
1.056886 -6.842863 0.000000
0.240737 -4.333023 -0.050522
1.061216 -6.870895 -1.081626
0.455142 -4.344977 -0.556085
1.389873 -6.782950 0.040242
0.454640 -4.340179 -0.025363
1.060520 -6.866393 -0.748394
0.239711 -4.314559 -0.403377
0.719660 -4.659475 0.109709
0.240293 -4.325036 0.050429
1.058575 -6.853798 -0.484947
0.456047 -4.353617 -0.357353
1.386098 -6.764526 0.200957
0.453328 -4.327659 0.075953
1.392660 -6.796551 -0.444633
0.240789 -4.333961 -0.252788
0.711932 -4.609442 0.271626
0.454687 -4.340630 0.177809
1.058791 -6.855195 -0.323112
0.454857 -4.342250 -0.228813
0.678128 -4.390577 0.545487
1.389547 -6.781357 -0.282020
0.239941 -4.318703 -0.151045
0.661710 -4.284276 1.161580
0.454243 -4.336395 0.794963
1.057821 -6.848915 -0.161260
0.373314 -3.675199 -1.722592
1.366000 -6.774602 -0.120631
0.439207 -4.323911 -0.126486
0.692350 -4.577946 -1.296118
0.442355 -4.354902 -0.875468
0.696835 -4.607605 0.000000
0.227333 -4.337753 -0.050569
1.040216 -6.878103 -1.082241
0.440287 -4.334543 -0.554570
1.368557 -6.787283 0.040242
0.440194 -4.333628 -0.025317
1.037755 -6.861826 -0.747537
0.225947 -4.311314 -0.403006
0.693059 -4.582634 0.107848
0.226705 -4.325770 0.050429
1.037038 -6.857090 -0.484947
0.442368 -4.355029 -0.357353
1.365630 -6.772767 0.201074
0.437710 -4.309167 0.075604
1.368934 -6.789154 -0.443865
0.227590 -4.342672 -0.253254
0.686700 -4.540586 0.267440
0.440645 -4.338061 0.177647
1.039640 -6.874290 -0.323857
0.440002 -4.331735 -0.228185
0.661957 -4.376983 0.543537
1.369026 -6.789607 -0.282183
0.226582 -4.323428 -0.151185
0.646514 -4.274872 1.158474
0.439823 -4.329970 0.793528
0.692461 -4.578680 -0.107755
0.361543 -3.687304 -1.727664
1.341566 -6.775406 -0.120561
0.423721 -4.321439 -0.126369
0.675240 -4.572714 -1.293962
0.424089 -4.325191 -0.869192
0.669060 -4.530868 0.000000
0.211994 -4.334525 -0.050522
0.685358 -4.641232 -0.729898
0.423218 -4.316308 -0.552045
1.344079 -6.788095 0.040218
0.425064 -4.335138 -0.025317
1.013795 -6.865407 -0.747537
0.211479 -4.324010 -0.404121
0.667711 -4.521729 0.106359
0.211603 -4.326535 0.050429
1.017176 -6.888301 -0.486900
0.426385 -4.348611 -0.356702
1.341980 -6.777493 0.201074
0.423055 -4.314649 0.075674
1.346002 -6.797806 -0.444121
0.212039 -4.335463 -0.252788
0.665012 -4.503451 0.265114
0.423939 -4.323662 0.176995
0.424488 -4.329269 -0.227975
0.646094 -4.375340 0.543050
1.345316 -6.794344 -0.282183
0.210902 -4.312214 -0.150766
0.632152 -4.280925 1.159509
0.424321 -4.327563 0.792810
0.674137 -4.565245 -0.107383
0.350035 -3.702980 -1.734425
1.317908 -6.780048 -0.120561
0.407881 -4.314930 -0.126137
0.657077 -4.559794 -1.289649
0.407881 -4.314930 -0.866838
0.649818 -4.509421 0.000000
0.197407 -4.347225 -0.050662
0.662952 -4.600564 -0.723134
0.407028 -4.305908 -0.550529
1.319613 -6.788819 0.040195
0.408800 -4.324648 -0.025247
0.661963 -4.593702 -0.499929
0.196204 -4.320744 -0.403749
0.648501 -4.500285 0.105801
0.197044 -4.339234 0.050569
0.410078 -4.338166 -0.355725
1.319077 -6.786061 0.201190
0.406486 -4.300173 0.075394
1.322266 -6.802464 -0.444121
0.197448 -4.348144 -0.253486
0.648719 -4.501793 0.264881
0.409596 -4.333074 0.177321
0.656523 -4.555949 -0.214415
0.407871 -4.314817 -0.227138
0.627986 -4.357921 0.540612
1.321592 -6.798999 -0.282183
0.197118 -4.340878 -0.151743
0.617756 -4.286931 1.160545
0.411065 -4.348606 0.796398
0.650212 -4.512159 -0.106080
0.337435 -3.707790 -1.736116
1.294233 -6.784608 -0.120561
0.391729 -4.304382 -0.125787
0.640083 -4.554430 -1.287492
0.393883 -4.328046 -0.869192
0.627949 -4.468090 0.000000
0.182900 -4.363873 -0.050848
0.639737 -4.551969 -0.715140
0.392355 -4.311255 -0.551035
1.296656 -6.797314 0.040218
0.393338 -4.322065 -0.025224
0.642602 -4.572356 -0.497359
0.181620 -4.333341 -0.404864
0.631118 -4.490641 0.105522
0.181895 -4.339896 0.050569
0.636971 -4.532283 -0.320043
0.394570 -4.335600 -0.355400
1.294631 -6.786697 0.201074
0.392923 -4.317498 0.075674
1.298511 -6.807038 -0.444121
0.182436 -4.352797 -0.253719
0.629665 -4.480304 0.263486
0.394468 -4.334477 0.177321
0.634498 -4.514688 -0.212368
0.392082 -4.308259 -0.226719
0.610560 -4.344360 0.538663
1.297101 -6.799646 -0.282020
0.182131 -4.345534 -0.151883
0.603326 -4.292887 1.161580
0.394099 -4.330420 0.792810
0.632788 -4.502521 -0.105801
0.324175 -3.705333 -1.734425
1.271278 -6.793014 -0.120631
0.377050 -4.309706 -0.125904
0.624182 -4.556637 -1.287492
0.378431 -4.325488 -0.868407
0.608549 -4.442513 0.000000
0.167360 -4.356491 -0.050755
0.620626 -4.530678 -0.711451
0.376958 -4.308645 -0.550529
1.272186 -6.797866 0.040195
0.378598 -4.327397 -0.025247
0.622320 -4.543049 -0.493932
0.167564 -4.361806 -0.407467
0.614897 -4.488854 0.105429
0.168434 -4.384469 0.051081
0.615731 -4.494946 -0.317252
0.378392 -4.325037 -0.354424
1.270934 -6.791174 0.201074
0.376804 -4.306890 0.075464
1.274743 -6.811529 -0.444121
0.167548 -4.361388 -0.254184
0.610229 -4.454781 0.261858
0.379336 -4.335828 0.177321
0.614939 -4.489164 -0.211065
0.378086 -4.321539 -0.227347
0.598086 -4.366131 0.541100
1.272623 -6.800203 -0.281857
0.167116 -4.350138 -0.152022
0.588862 -4.298794 1.162615
0.378981 -4.331769 0.792810
0.615439 -4.492816 -0.105522
0.311239 -3.706442 -1.734425
1.246115 -6.789543 -0.120491
0.362005 -4.310996 -0.125904
0.072850 -0.545985 -0.154197
0.363659 -4.330690 -0.869192
0.592509 -4.440646 0.000000
0.601148 -4.505393 -0.707146
0.360256 -4.290164 -0.548004
1.247728 -6.798331 0.040172
0.363156 -4.324706 -0.025224
0.602251 -4.513658 -0.490505
0.151921 -4.350424 -0.406352
0.595522 -4.463227 0.104777
0.152571 -4.369041 0.050895
0.595288 -4.461470 -0.314741
0.362959 -4.322358 -0.354098
1.246499 -6.791636 0.200957
0.361434 -4.304193 0.075394
1.250959 -6.815937 -0.444121
0.152880 -4.377909 -0.255114
0.590451 -4.425218 0.259998
0.364199 -4.337125 0.177321
0.595038 -4.459599 -0.209576
0.360659 -4.294969 -0.225882
0.579166 -4.340645 0.537688
1.248879 -6.804604 -0.281857
0.152907 -4.378661 -0.152999
0.571809 -4.285505 1.158474
0.363200 -4.325223 0.791375
0.594464 -4.455299 -0.104591
0.298299 -3.707506 -1.734425
1.222407 -6.793852 -0.120491
0.345992 -4.300277 -0.125555
0.072432 -0.557696 -0.157432
0.347281 -4.316296 -0.866054
0.575974 -4.434753 0.000000
0.137821 -4.385538 -0.051081
0.582872 -4.487867 -0.704072
0.346232 -4.303261 -0.549519
1.223989 -6.802645 0.040172
0.347095 -4.313986 -0.025154
0.580344 -4.468405 -0.485364
0.137359 -4.370831 -0.408210
0.575818 -4.433553 0.104033
0.137570 -4.377542 0.050988
0.578682 -4.455607 -0.314183
0.348828 -4.335521 -0.355075
1.222075 -6.792011 0.200841
0.346406 -4.305429 0.075394
1.227159 -6.820262 -0.444121
0.571914 -4.403492 0.258602
0.348736 -4.334386 0.177158
0.577408 -4.445800 -0.208832
0.346625 -4.308147 -0.226510
0.564522 -4.346578 0.538175
1.224410 -6.804989 -0.281694
0.137495 -4.375173 -0.152860
0.557841 -4.295137 1.160545
0.347468 -4.318620 0.789940
0.576848 -4.441485 -0.104219
0.285356 -3.708525 -1.734425
1.198685 -6.798078 -0.120491
0.331286 -4.305445 -0.125671
0.070002 -0.554124 -0.156354
0.330708 -4.297928 -0.862132
0.555978 -4.401021 0.000000
0.122959 -4.401985 -0.051267
0.564726 -4.470267 -0.700997
0.330905 -4.300487 -0.549014
1.200236 -6.806876 0.040172
0.332341 -4.319160 -0.025177
0.562251 -4.450676 -0.483222
0.122212 -4.375265 -0.408582
0.555828 -4.399830 0.103195
0.122512 -4.385992 0.051081
0.560125 -4.433847 -0.312509
0.333080 -4.328762 -0.354424
1.199054 -6.800173 0.200957
0.331683 -4.310600 0.075464
1.202651 -6.820573 -0.443865
0.122536 -4.386853 -0.255579
0.553036 -4.377730 0.256974
0.332991 -4.327608 0.176832
0.561386 -4.443824 -0.208646
0.331585 -4.309330 -0.226510
0.551337 -4.364278 0.540125
1.202038 -6.817093 -0.282020
0.122669 -4.391609 -0.153418
0.540908 -4.281726 1.156404
0.332391 -4.319807 0.789940
0.559838 -4.431569 -0.103940
0.273056 -3.709451 -1.734425
1.176135 -6.802015 -0.120491
0.316713 -4.302533 -0.125555
0.067224 -0.546707 -0.154197
0.317317 -4.310736 -0.864485
0.537476 -4.371080 0.000000
0.108360 -4.402369 -0.051267
0.548934 -4.464270 -0.699767
0.316642 -4.301561 -0.549014
1.179020 -6.818702 0.040218
0.317723 -4.316249 -0.025154
0.547004 -4.448569 -0.482794
0.107997 -4.387590 -0.409697
0.539282 -4.385773 0.102823
0.108360 -4.402369 0.051267
0.543471 -4.419839 -0.311393
0.318431 -4.325867 -0.354098
1.175135 -6.796232 0.200725
0.317680 -4.315665 0.075534
1.180707 -6.828457 -0.444121
0.108381 -4.403203 -0.256509
0.538028 -4.375576 0.256742
0.319225 -4.336660 0.177158
0.544208 -4.425832 -0.207715
0.317293 -4.310406 -0.226510
0.534438 -4.346379 0.537688
1.178063 -6.813165 -0.281694
0.108597 -4.411974 -0.154116
0.527178 -4.287330 1.157439
0.317775 -4.316960 0.789223
0.540258 -4.393711 -0.103009
0.258700 -3.699577 -1.729354
1.152530 -6.814167 -0.120631
0.301220 -4.307653 -0.125671
